ply
format ascii 1.0
element vertex 2455
property float x
property float y
property float z
element face 0
property list uint8 int32 vertex_index
end_header
-0.841 -0.783 2.559
-0.843 -0.792 2.587
-0.844 -0.800 2.614
-0.845 -0.808 2.639
-0.848 -0.817 2.670
-0.850 -0.826 2.699
-0.851 -0.835 2.728
-0.852 -0.844 2.756
-0.855 -0.854 2.789
-0.855 -0.862 2.815
-0.857 -0.871 2.846
-0.860 -0.882 2.882
-0.861 -0.891 2.912
-0.863 -0.902 2.946
-0.863 -0.910 2.974
-0.863 -0.919 3.003
-0.864 -0.929 3.035
-0.861 -0.935 3.055
-0.859 -0.941 3.075
-0.856 -0.947 3.095
-0.854 -0.955 3.119
-0.850 -0.960 3.138
-0.845 -0.964 3.150
-0.838 -0.966 3.155
-0.830 -0.967 3.158
-0.822 -0.967 3.161
-0.814 -0.968 3.164
-0.806 -0.969 3.167
-0.798 -0.970 3.170
-0.791 -0.971 3.173
-0.782 -0.971 3.174
-0.773 -0.971 3.173
-0.765 -0.971 3.174
-0.756 -0.971 3.173
-0.747 -0.971 3.173
-0.738 -0.971 3.171
-0.730 -0.971 3.172
-0.721 -0.971 3.174
-0.713 -0.971 3.174
-0.705 -0.973 3.178
-0.696 -0.973 3.178
-0.687 -0.972 3.177
-0.678 -0.972 3.175
-0.669 -0.972 3.175
-0.662 -0.973 3.179
-0.653 -0.973 3.180
-0.644 -0.973 3.180
-0.635 -0.973 3.178
-0.626 -0.972 3.176
-0.617 -0.971 3.172
-0.608 -0.971 3.171
-0.599 -0.971 3.172
-0.590 -0.970 3.169
-0.581 -0.969 3.167
-0.573 -0.970 3.168
-0.565 -0.971 3.172
-0.556 -0.971 3.174
-0.547 -0.971 3.171
-0.539 -0.971 3.172
-0.530 -0.971 3.172
-0.521 -0.971 3.172
-0.513 -0.971 3.171
-0.504 -0.970 3.169
-0.495 -0.970 3.170
-0.486 -0.970 3.168
-0.478 -0.970 3.170
-0.469 -0.970 3.170
-0.461 -0.971 3.171
-0.452 -0.971 3.173
-0.443 -0.971 3.172
-0.435 -0.971 3.172
-0.426 -0.971 3.171
-0.417 -0.971 3.173
-0.408 -0.970 3.170
-0.400 -0.970 3.170
-0.391 -0.970 3.170
-0.382 -0.971 3.171
-0.374 -0.970 3.169
-0.365 -0.969 3.167
-0.356 -0.971 3.171
-0.348 -0.971 3.172
-0.339 -0.970 3.170
-0.330 -0.970 3.169
-0.321 -0.970 3.168
-0.313 -0.969 3.166
-0.304 -0.969 3.165
-0.295 -0.969 3.166
-0.287 -0.971 3.173
-0.279 -0.972 3.176
-0.270 -0.972 3.176
-0.261 -0.971 3.173
-0.252 -0.970 3.169
-0.244 -0.970 3.168
-0.235 -0.970 3.170
-0.227 -0.971 3.173
-0.218 -0.971 3.173
-0.209 -0.971 3.174
-0.201 -0.971 3.173
-0.192 -0.971 3.173
-0.183 -0.970 3.168
-0.174 -0.970 3.168
-0.166 -0.970 3.169
-0.157 -0.971 3.173
-0.148 -0.970 3.170
-0.140 -0.971 3.172
-0.131 -0.971 3.172
-0.123 -0.972 3.175
-0.114 -0.971 3.173
-0.105 -0.971 3.174
-0.096 -0.972 3.175
-0.088 -0.972 3.177
-0.079 -0.972 3.175
-0.070 -0.972 3.176
-0.062 -0.972 3.176
-0.053 -0.973 3.179
-0.044 -0.973 3.179
-0.036 -0.972 3.176
-0.027 -0.972 3.175
-0.018 -0.971 3.172
-0.010 -0.970 3.170
-0.001 -0.970 3.168
0.008 -0.970 3.168
0.016 -0.970 3.169
0.025 -0.970 3.170
0.034 -0.969 3.167
0.042 -0.969 3.165
0.051 -0.969 3.165
0.060 -0.970 3.168
0.068 -0.971 3.171
0.077 -0.971 3.173
0.086 -0.972 3.175
0.094 -0.971 3.173
0.103 -0.970 3.169
0.112 -0.970 3.168
0.120 -0.971 3.171
0.129 -0.971 3.172
0.138 -0.971 3.173
0.146 -0.970 3.170
0.155 -0.972 3.175
0.164 -0.971 3.173
0.173 -0.973 3.178
0.181 -0.971 3.173
0.190 -0.971 3.173
0.198 -0.970 3.168
0.207 -0.970 3.168
0.216 -0.970 3.169
0.225 -0.971 3.172
0.233 -0.971 3.171
0.242 -0.970 3.169
0.250 -0.970 3.168
0.259 -0.971 3.172
0.268 -0.971 3.174
0.277 -0.971 3.171
0.285 -0.969 3.165
0.293 -0.968 3.162
0.302 -0.969 3.165
0.311 -0.970 3.168
0.319 -0.969 3.166
0.328 -0.968 3.163
0.337 -0.969 3.165
0.345 -0.969 3.165
0.354 -0.968 3.164
0.362 -0.968 3.162
0.371 -0.968 3.164
0.380 -0.969 3.165
0.389 -0.969 3.166
0.397 -0.969 3.166
0.405 -0.967 3.161
0.414 -0.967 3.160
0.422 -0.967 3.159
0.432 -0.968 3.164
0.440 -0.969 3.165
0.449 -0.969 3.165
0.458 -0.969 3.166
0.467 -0.969 3.167
0.476 -0.970 3.170
0.484 -0.969 3.165
0.492 -0.967 3.161
0.500 -0.967 3.160
0.509 -0.968 3.162
0.519 -0.969 3.167
0.527 -0.969 3.166
0.536 -0.970 3.169
0.544 -0.969 3.165
0.553 -0.968 3.164
0.561 -0.968 3.162
0.570 -0.968 3.162
0.577 -0.966 3.157
0.586 -0.966 3.156
0.595 -0.966 3.156
0.604 -0.967 3.161
0.613 -0.967 3.161
0.621 -0.967 3.161
0.630 -0.967 3.160
0.639 -0.967 3.161
0.647 -0.967 3.161
0.656 -0.967 3.160
0.664 -0.967 3.158
0.672 -0.966 3.157
0.681 -0.967 3.159
0.690 -0.967 3.158
0.699 -0.967 3.159
0.707 -0.967 3.159
0.717 -0.968 3.162
0.725 -0.967 3.161
0.734 -0.967 3.161
0.743 -0.968 3.162
0.751 -0.968 3.162
0.759 -0.967 3.160
0.768 -0.967 3.159
0.776 -0.967 3.158
0.785 -0.967 3.158
0.793 -0.966 3.157
0.802 -0.967 3.159
0.812 -0.968 3.162
0.820 -0.967 3.161
0.828 -0.966 3.156
0.836 -0.966 3.155
0.846 -0.967 3.159
0.855 -0.968 3.162
0.863 -0.967 3.161
0.871 -0.967 3.158
0.880 -0.967 3.159
0.889 -0.967 3.158
0.898 -0.968 3.162
0.907 -0.968 3.163
0.916 -0.968 3.164
0.925 -0.968 3.164
0.933 -0.968 3.163
0.941 -0.967 3.161
0.950 -0.967 3.160
0.959 -0.968 3.163
0.968 -0.968 3.164
0.976 -0.968 3.163
0.984 -0.967 3.160
0.992 -0.967 3.158
1.001 -0.967 3.159
1.009 -0.967 3.158
1.019 -0.967 3.160
1.027 -0.967 3.158
1.036 -0.967 3.160
1.044 -0.967 3.158
1.053 -0.967 3.159
1.062 -0.967 3.159
1.071 -0.967 3.161
1.079 -0.967 3.160
1.088 -0.967 3.160
1.095 -0.966 3.157
1.105 -0.967 3.159
1.113 -0.967 3.159
1.123 -0.968 3.162
1.132 -0.968 3.163
1.142 -0.969 3.165
1.150 -0.968 3.164
1.158 -0.968 3.162
1.166 -0.967 3.160
1.174 -0.967 3.159
1.182 -0.967 3.158
1.191 -0.967 3.159
1.199 -0.966 3.157
1.208 -0.966 3.157
1.216 -0.966 3.157
1.225 -0.967 3.158
1.233 -0.966 3.155
1.240 -0.964 3.151
1.248 -0.964 3.149
1.257 -0.965 3.152
1.268 -0.966 3.157
1.277 -0.967 3.158
1.286 -0.967 3.159
1.295 -0.967 3.160
1.302 -0.966 3.156
1.310 -0.965 3.153
1.317 -0.964 3.151
1.327 -0.965 3.153
1.335 -0.965 3.153
1.343 -0.964 3.150
1.351 -0.964 3.149
1.360 -0.964 3.149
1.368 -0.964 3.149
1.377 -0.964 3.149
1.386 -0.964 3.151
1.396 -0.965 3.154
1.405 -0.966 3.155
1.413 -0.965 3.153
1.421 -0.964 3.151
1.429 -0.964 3.149
1.439 -0.965 3.153
1.448 -0.965 3.154
1.458 -0.966 3.157
1.465 -0.965 3.154
1.474 -0.966 3.155
1.481 -0.964 3.150
1.489 -0.964 3.150
1.500 -0.965 3.154
1.507 -0.965 3.152
1.518 -0.966 3.157
1.527 -0.966 3.157
1.537 -0.967 3.160
1.542 -0.965 3.153
1.547 -0.962 3.144
1.555 -0.962 3.143
1.565 -0.963 3.146
1.574 -0.964 3.148
1.581 -0.962 3.143
1.589 -0.962 3.143
1.598 -0.962 3.143
1.609 -0.964 3.149
1.616 -0.963 3.146
1.627 -0.964 3.150
1.634 -0.963 3.147
1.642 -0.963 3.146
1.648 -0.961 3.141
1.657 -0.961 3.141
1.665 -0.961 3.140
1.680 -0.965 3.152
1.690 -0.966 3.155
1.698 -0.965 3.153
1.702 -0.963 3.146
1.713 -0.964 3.150
1.725 -0.966 3.156
1.733 -0.966 3.155
1.737 -0.963 3.146
1.744 -0.962 3.143
1.749 -0.960 3.137
1.758 -0.960 3.137
1.765 -0.960 3.135
1.774 -0.960 3.136
1.782 -0.959 3.134
1.797 -0.963 3.146
1.807 -0.964 3.149
1.816 -0.964 3.149
1.819 -0.961 3.140
1.823 -0.959 3.132
1.839 -0.962 3.144
1.856 -0.967 3.158
1.864 -0.966 3.157
1.869 -0.964 3.151
1.875 -0.963 3.147
1.889 -0.966 3.156
1.904 -0.969 3.166
1.909 -0.967 3.161
1.909 -0.963 3.146
1.924 -0.966 3.156
1.934 -0.967 3.159
1.944 -0.967 3.161
1.956 -0.969 3.166
1.966 -0.970 3.169
1.970 -0.967 3.161
1.976 -0.966 3.157
1.977 -0.963 3.145
1.978 -0.959 3.132
1.992 -0.961 3.141
2.000 -0.961 3.140
2.001 -0.958 3.129
0.000 -0.000 0.000
2.015 -0.956 3.124
2.040 -0.964 3.149
2.039 -0.960 3.135
2.058 -0.964 3.150
2.064 -0.963 3.147
2.065 -0.960 3.135
2.062 -0.954 3.117
2.056 -0.948 3.096
2.100 -0.964 3.148
2.099 -0.959 3.134
2.099 -0.956 3.122
2.096 -0.950 3.105
2.123 -0.959 3.132
0.000 -0.000 0.000
0.000 -0.000 0.000
0.000 -0.000 0.000
0.000 -0.000 0.000
0.000 -0.000 0.000
-0.000 -0.000 0.000
-0.813 -0.351 1.157
-0.813 -0.352 1.161
-0.813 -0.354 1.166
-0.809 -0.353 1.164
-0.808 -0.354 1.167
-0.809 -0.356 1.174
-0.808 -0.357 1.177
-0.808 -0.358 1.181
-0.807 -0.359 1.185
-0.811 -0.363 1.196
-0.812 -0.364 1.201
-0.811 -0.366 1.205
-0.811 -0.367 1.210
-0.814 -0.370 1.219
-0.815 -0.372 1.226
-0.813 -0.372 1.228
-0.810 -0.373 1.229
-0.810 -0.374 1.234
-0.812 -0.377 1.242
-0.815 -0.380 1.252
-0.817 -0.382 1.260
-0.815 -0.383 1.262
-0.816 -0.385 1.269
-0.815 -0.386 1.273
-0.817 -0.389 1.281
-0.815 -0.389 1.284
-0.816 -0.392 1.291
-0.818 -0.394 1.300
-0.821 -0.397 1.310
-0.821 -0.399 1.316
-0.819 -0.400 1.319
-0.819 -0.402 1.325
-0.818 -0.403 1.329
-0.818 -0.405 1.334
-0.816 -0.406 1.338
-0.818 -0.408 1.346
-0.819 -0.411 1.354
-0.821 -0.414 1.364
-0.821 -0.416 1.370
-0.822 -0.418 1.378
-0.821 -0.420 1.383
-0.822 -0.422 1.391
-0.821 -0.423 1.396
-0.820 -0.425 1.401
-0.819 -0.426 1.406
-0.821 -0.429 1.415
-0.823 -0.432 1.425
-0.823 -0.434 1.432
-0.823 -0.437 1.439
-0.822 -0.438 1.444
-0.823 -0.441 1.454
-0.824 -0.443 1.462
-0.825 -0.446 1.471
-0.824 -0.448 1.477
-0.826 -0.451 1.487
-0.825 -0.453 1.492
-0.824 -0.454 1.498
-0.824 -0.457 1.505
-0.825 -0.460 1.516
-0.826 -0.462 1.524
-0.826 -0.465 1.532
-0.825 -0.467 1.539
-0.826 -0.470 1.548
-0.828 -0.473 1.559
-0.831 -0.477 1.573
-0.831 -0.480 1.581
-0.830 -0.482 1.588
-0.828 -0.483 1.593
-0.828 -0.486 1.601
-0.829 -0.489 1.612
-0.830 -0.492 1.622
-0.831 -0.495 1.632
-0.831 -0.498 1.641
-0.831 -0.501 1.650
-0.830 -0.503 1.658
-0.830 -0.505 1.666
-0.830 -0.508 1.676
-0.831 -0.512 1.687
-0.831 -0.514 1.696
-0.831 -0.518 1.707
-0.832 -0.521 1.718
-0.833 -0.524 1.729
-0.833 -0.528 1.740
-0.833 -0.531 1.750
-0.833 -0.534 1.760
-0.833 -0.537 1.769
-0.834 -0.541 1.782
-0.834 -0.544 1.793
-0.834 -0.547 1.804
-0.833 -0.549 1.811
-0.833 -0.553 1.822
-0.832 -0.555 1.831
-0.832 -0.559 1.843
-0.832 -0.563 1.855
-0.834 -0.567 1.869
-0.835 -0.571 1.883
-0.834 -0.575 1.894
-0.834 -0.578 1.904
-0.833 -0.581 1.915
-0.834 -0.585 1.930
-0.835 -0.589 1.943
-0.835 -0.593 1.956
-0.834 -0.596 1.966
-0.835 -0.601 1.981
-0.835 -0.605 1.995
-0.836 -0.609 2.009
-0.835 -0.613 2.021
-0.834 -0.616 2.032
-0.834 -0.620 2.045
-0.834 -0.625 2.059
-0.833 -0.628 2.071
-0.833 -0.632 2.084
-0.832 -0.636 2.097
-0.832 -0.640 2.111
-0.831 -0.644 2.123
-0.831 -0.649 2.139
-0.832 -0.654 2.155
-0.833 -0.659 2.174
-0.832 -0.664 2.188
-0.833 -0.669 2.206
-0.833 -0.674 2.223
-0.833 -0.679 2.239
-0.832 -0.683 2.253
-0.832 -0.688 2.268
-0.832 -0.694 2.287
-0.833 -0.700 2.307
-0.833 -0.705 2.324
-0.833 -0.710 2.341
-0.832 -0.715 2.356
-0.832 -0.720 2.375
-0.832 -0.726 2.393
-0.833 -0.733 2.415
-0.834 -0.740 2.439
-0.836 -0.747 2.464
-0.838 -0.755 2.488
-0.838 -0.761 2.510
-0.839 -0.768 2.532
-0.840 -0.776 2.557
-0.842 -0.784 2.586
-0.844 -0.793 2.613
-0.845 -0.801 2.639
-0.847 -0.809 2.667
-0.849 -0.818 2.696
-0.850 -0.827 2.725
-0.853 -0.837 2.758
-0.855 -0.846 2.790
-0.857 -0.856 2.821
-0.858 -0.865 2.851
-0.859 -0.874 2.880
-0.860 -0.882 2.908
-0.861 -0.892 2.940
-0.862 -0.901 2.969
-0.863 -0.911 3.003
-0.864 -0.920 3.034
-0.863 -0.928 3.060
-0.860 -0.934 3.080
-0.857 -0.940 3.100
-0.856 -0.948 3.126
-0.853 -0.955 3.147
-0.847 -0.958 3.158
-0.839 -0.959 3.160
-0.831 -0.959 3.160
-0.822 -0.959 3.162
-0.815 -0.961 3.167
-0.808 -0.962 3.172
-0.800 -0.964 3.177
-0.792 -0.965 3.180
-0.783 -0.964 3.179
-0.775 -0.964 3.179
-0.766 -0.965 3.181
-0.758 -0.965 3.180
-0.749 -0.965 3.181
-0.740 -0.965 3.180
-0.732 -0.965 3.182
-0.723 -0.965 3.181
-0.714 -0.964 3.179
-0.706 -0.965 3.182
-0.697 -0.965 3.182
-0.689 -0.966 3.183
-0.679 -0.964 3.178
-0.670 -0.964 3.178
-0.662 -0.965 3.181
-0.655 -0.967 3.187
-0.646 -0.967 3.187
-0.637 -0.966 3.184
-0.627 -0.965 3.182
-0.619 -0.965 3.181
-0.610 -0.965 3.181
-0.601 -0.965 3.181
-0.592 -0.964 3.177
-0.582 -0.963 3.174
-0.574 -0.963 3.174
-0.566 -0.964 3.177
-0.557 -0.964 3.177
-0.548 -0.963 3.176
-0.540 -0.964 3.178
-0.531 -0.964 3.178
-0.522 -0.963 3.176
-0.513 -0.963 3.175
-0.504 -0.962 3.172
-0.496 -0.963 3.174
-0.487 -0.962 3.173
-0.479 -0.964 3.177
-0.470 -0.963 3.175
-0.461 -0.964 3.177
-0.453 -0.964 3.178
-0.444 -0.965 3.180
-0.435 -0.964 3.178
-0.427 -0.964 3.177
-0.418 -0.963 3.175
-0.409 -0.962 3.173
-0.400 -0.963 3.174
-0.392 -0.964 3.177
-0.383 -0.964 3.179
-0.375 -0.964 3.178
-0.366 -0.964 3.179
-0.357 -0.964 3.179
-0.349 -0.964 3.179
-0.340 -0.964 3.178
-0.331 -0.963 3.176
-0.322 -0.962 3.173
-0.313 -0.962 3.170
-0.304 -0.961 3.169
-0.296 -0.962 3.172
-0.288 -0.964 3.179
-0.279 -0.965 3.182
-0.271 -0.966 3.183
-0.262 -0.965 3.181
-0.253 -0.964 3.179
-0.244 -0.963 3.176
-0.235 -0.963 3.175
-0.227 -0.964 3.179
-0.218 -0.965 3.180
-0.210 -0.964 3.179
-0.201 -0.963 3.176
-0.192 -0.963 3.175
-0.183 -0.963 3.174
-0.175 -0.963 3.174
-0.166 -0.964 3.177
-0.157 -0.965 3.180
-0.149 -0.965 3.180
-0.140 -0.964 3.178
-0.131 -0.965 3.180
-0.123 -0.964 3.179
-0.114 -0.964 3.179
-0.105 -0.964 3.178
-0.097 -0.965 3.182
-0.088 -0.965 3.182
-0.079 -0.965 3.180
-0.071 -0.965 3.181
-0.062 -0.966 3.186
-0.053 -0.967 3.189
-0.045 -0.966 3.186
-0.036 -0.966 3.183
-0.027 -0.965 3.180
-0.018 -0.964 3.178
-0.010 -0.964 3.177
-0.001 -0.964 3.177
0.008 -0.964 3.179
0.016 -0.964 3.178
0.025 -0.965 3.181
0.034 -0.964 3.177
0.042 -0.964 3.177
0.051 -0.963 3.174
0.060 -0.963 3.176
0.069 -0.963 3.176
0.077 -0.965 3.180
0.086 -0.965 3.180
0.095 -0.965 3.180
0.103 -0.963 3.176
0.112 -0.964 3.178
0.121 -0.964 3.179
0.130 -0.965 3.181
0.138 -0.964 3.179
0.147 -0.963 3.175
0.155 -0.964 3.177
0.164 -0.964 3.177
0.173 -0.966 3.183
0.182 -0.965 3.182
0.190 -0.965 3.180
0.199 -0.963 3.175
0.208 -0.964 3.177
0.216 -0.964 3.177
0.225 -0.964 3.179
0.234 -0.964 3.179
0.242 -0.964 3.178
0.251 -0.963 3.175
0.259 -0.962 3.173
0.269 -0.965 3.180
0.277 -0.964 3.179
0.286 -0.963 3.176
0.294 -0.962 3.170
0.303 -0.962 3.173
0.312 -0.963 3.174
0.320 -0.962 3.173
0.328 -0.961 3.169
0.337 -0.962 3.170
0.346 -0.961 3.168
0.355 -0.962 3.171
0.363 -0.961 3.168
0.372 -0.963 3.174
0.381 -0.963 3.174
0.390 -0.964 3.178
0.398 -0.963 3.175
0.407 -0.962 3.172
0.415 -0.962 3.170
0.424 -0.961 3.168
0.432 -0.962 3.170
0.441 -0.962 3.171
0.450 -0.962 3.172
0.459 -0.963 3.175
0.467 -0.962 3.172
0.476 -0.962 3.172
0.484 -0.961 3.168
0.493 -0.960 3.166
0.501 -0.961 3.167
0.510 -0.961 3.169
0.520 -0.963 3.174
0.529 -0.964 3.178
0.538 -0.964 3.177
0.546 -0.963 3.174
0.554 -0.962 3.170
0.563 -0.962 3.171
0.571 -0.961 3.168
0.579 -0.960 3.165
0.587 -0.960 3.164
0.596 -0.960 3.166
0.605 -0.961 3.167
0.614 -0.961 3.168
0.623 -0.961 3.169
0.632 -0.961 3.169
0.640 -0.961 3.167
0.649 -0.961 3.169
0.658 -0.961 3.169
0.666 -0.961 3.169
0.674 -0.960 3.166
0.683 -0.960 3.165
0.691 -0.960 3.164
0.700 -0.960 3.166
0.710 -0.961 3.169
0.718 -0.961 3.169
0.727 -0.962 3.170
0.735 -0.961 3.168
0.745 -0.962 3.170
0.753 -0.961 3.169
0.761 -0.960 3.166
0.769 -0.960 3.164
0.778 -0.960 3.164
0.787 -0.960 3.165
0.794 -0.959 3.161
0.803 -0.959 3.163
0.813 -0.960 3.166
0.823 -0.962 3.172
0.830 -0.961 3.167
0.838 -0.959 3.163
0.846 -0.959 3.162
0.856 -0.960 3.165
0.865 -0.961 3.167
0.873 -0.960 3.164
0.882 -0.960 3.166
0.890 -0.960 3.164
0.899 -0.960 3.166
0.907 -0.959 3.163
0.917 -0.960 3.166
0.926 -0.961 3.168
0.935 -0.961 3.169
0.943 -0.961 3.168
0.952 -0.961 3.167
0.960 -0.961 3.167
0.970 -0.961 3.169
0.978 -0.961 3.167
0.986 -0.960 3.166
0.994 -0.960 3.164
1.003 -0.960 3.164
1.010 -0.959 3.161
1.020 -0.959 3.163
1.029 -0.960 3.164
1.038 -0.960 3.166
1.046 -0.959 3.163
1.055 -0.960 3.165
1.064 -0.960 3.166
1.073 -0.961 3.167
1.081 -0.960 3.165
1.090 -0.960 3.165
1.098 -0.960 3.164
1.107 -0.960 3.166
1.116 -0.961 3.167
1.125 -0.961 3.167
1.133 -0.960 3.165
1.142 -0.960 3.165
1.150 -0.960 3.165
1.159 -0.960 3.166
1.167 -0.960 3.164
1.175 -0.959 3.163
1.184 -0.959 3.163
1.194 -0.960 3.166
1.201 -0.959 3.162
1.210 -0.959 3.162
1.218 -0.959 3.162
1.228 -0.960 3.165
1.236 -0.959 3.162
1.243 -0.958 3.158
1.250 -0.957 3.156
1.260 -0.958 3.159
1.271 -0.960 3.165
1.280 -0.960 3.165
1.287 -0.959 3.162
1.295 -0.959 3.160
1.303 -0.958 3.159
1.313 -0.959 3.160
1.321 -0.958 3.159
1.329 -0.958 3.158
1.336 -0.957 3.155
1.344 -0.956 3.152
1.352 -0.956 3.151
1.361 -0.956 3.152
1.370 -0.956 3.153
1.379 -0.957 3.154
1.389 -0.958 3.157
1.399 -0.959 3.161
1.408 -0.959 3.162
1.416 -0.958 3.159
1.423 -0.957 3.156
1.430 -0.956 3.153
1.442 -0.958 3.159
1.450 -0.958 3.158
1.461 -0.959 3.163
1.467 -0.958 3.158
1.474 -0.957 3.154
1.481 -0.956 3.150
1.489 -0.955 3.149
1.501 -0.957 3.156
1.508 -0.957 3.154
1.520 -0.959 3.160
1.529 -0.959 3.161
1.539 -0.960 3.164
1.544 -0.958 3.157
1.548 -0.955 3.147
1.557 -0.955 3.148
1.571 -0.958 3.158
1.579 -0.958 3.158
1.586 -0.956 3.153
1.596 -0.957 3.156
1.604 -0.957 3.155
1.612 -0.957 3.154
1.620 -0.956 3.152
1.630 -0.957 3.156
1.638 -0.957 3.155
1.647 -0.957 3.155
1.655 -0.957 3.154
1.664 -0.957 3.155
1.671 -0.956 3.152
1.682 -0.957 3.156
1.693 -0.959 3.160
1.699 -0.957 3.155
1.706 -0.956 3.152
1.714 -0.956 3.152
1.726 -0.958 3.158
1.735 -0.958 3.158
1.740 -0.956 3.152
1.748 -0.956 3.151
1.759 -0.957 3.154
1.762 -0.954 3.144
1.769 -0.953 3.142
1.778 -0.953 3.142
1.788 -0.954 3.145
1.801 -0.956 3.152
1.813 -0.958 3.158
1.818 -0.956 3.152
1.818 -0.952 3.137
1.825 -0.951 3.135
1.838 -0.953 3.142
1.855 -0.958 3.157
1.869 -0.960 3.166
1.868 -0.956 3.150
1.876 -0.955 3.149
1.887 -0.956 3.152
1.898 -0.958 3.157
1.912 -0.960 3.166
1.926 -0.963 3.174
1.932 -0.962 3.170
1.938 -0.960 3.165
1.948 -0.961 3.167
1.960 -0.962 3.173
1.962 -0.959 3.163
1.971 -0.959 3.163
1.975 -0.957 3.155
1.988 -0.959 3.162
1.990 -0.956 3.152
1.998 -0.956 3.151
2.016 -0.960 3.165
2.024 -0.960 3.165
2.018 -0.953 3.142
2.020 -0.950 3.131
2.032 -0.952 3.137
2.067 -0.964 3.178
2.057 -0.955 3.149
2.076 -0.960 3.165
2.086 -0.960 3.166
2.090 -0.959 3.160
0.000 -0.000 0.000
2.086 -0.949 3.127
0.000 -0.000 0.000
2.104 -0.949 3.129
2.105 -0.946 3.118
0.000 -0.000 0.000
0.000 -0.000 0.000
0.000 -0.000 0.000
2.156 -0.953 3.143
2.189 -0.964 3.178
0.000 -0.000 0.000
-0.000 -0.000 0.000
-0.816 -0.349 1.161
-0.820 -0.352 1.171
-0.815 -0.351 1.168
-0.812 -0.351 1.169
-0.806 -0.350 1.165
-0.809 -0.353 1.173
-0.809 -0.354 1.178
-0.812 -0.357 1.187
-0.814 -0.359 1.195
-0.817 -0.362 1.204
-0.812 -0.361 1.202
-0.810 -0.362 1.204
-0.813 -0.365 1.213
-0.817 -0.368 1.224
-0.818 -0.370 1.231
-0.816 -0.370 1.232
-0.814 -0.371 1.235
-0.814 -0.372 1.239
-0.815 -0.375 1.247
-0.816 -0.377 1.253
-0.819 -0.380 1.263
-0.818 -0.381 1.267
-0.819 -0.383 1.274
-0.818 -0.384 1.277
-0.819 -0.386 1.285
-0.817 -0.387 1.287
-0.817 -0.388 1.292
-0.817 -0.390 1.298
-0.818 -0.393 1.306
-0.820 -0.395 1.314
-0.819 -0.396 1.318
-0.820 -0.399 1.326
-0.819 -0.400 1.330
-0.820 -0.402 1.338
-0.818 -0.403 1.341
-0.821 -0.406 1.351
-0.821 -0.408 1.357
-0.822 -0.410 1.365
-0.821 -0.412 1.370
-0.822 -0.415 1.379
-0.822 -0.416 1.384
-0.822 -0.418 1.391
-0.821 -0.420 1.396
-0.821 -0.421 1.402
-0.820 -0.423 1.407
-0.821 -0.426 1.416
-0.822 -0.428 1.424
-0.823 -0.430 1.432
-0.823 -0.433 1.440
-0.825 -0.436 1.449
-0.827 -0.439 1.460
-0.827 -0.441 1.467
-0.827 -0.443 1.474
-0.824 -0.444 1.477
-0.824 -0.446 1.483
-0.824 -0.448 1.491
-0.823 -0.450 1.497
-0.824 -0.453 1.506
-0.825 -0.455 1.515
-0.826 -0.458 1.525
-0.826 -0.461 1.532
-0.826 -0.463 1.540
-0.826 -0.465 1.548
-0.828 -0.469 1.560
-0.830 -0.472 1.571
-0.830 -0.475 1.579
-0.829 -0.477 1.586
-0.829 -0.479 1.594
-0.829 -0.482 1.604
-0.831 -0.485 1.615
-0.831 -0.488 1.625
-0.832 -0.491 1.635
-0.833 -0.494 1.645
-0.833 -0.497 1.655
-0.833 -0.500 1.664
-0.832 -0.502 1.671
-0.832 -0.505 1.680
-0.831 -0.507 1.688
-0.831 -0.510 1.696
-0.831 -0.513 1.706
-0.833 -0.517 1.719
-0.834 -0.520 1.731
-0.834 -0.523 1.741
-0.833 -0.526 1.750
-0.834 -0.529 1.761
-0.833 -0.532 1.770
-0.833 -0.535 1.781
-0.835 -0.539 1.794
-0.835 -0.543 1.806
-0.834 -0.545 1.814
-0.833 -0.548 1.823
-0.833 -0.551 1.834
-0.833 -0.555 1.846
-0.834 -0.559 1.858
-0.835 -0.562 1.871
-0.835 -0.566 1.883
-0.834 -0.569 1.894
-0.833 -0.572 1.903
-0.833 -0.576 1.915
-0.835 -0.580 1.931
-0.836 -0.585 1.945
-0.837 -0.589 1.960
-0.835 -0.592 1.969
-0.835 -0.596 1.982
-0.835 -0.600 1.995
-0.837 -0.605 2.012
-0.836 -0.608 2.024
-0.836 -0.612 2.037
-0.835 -0.615 2.047
-0.835 -0.620 2.061
-0.834 -0.623 2.072
-0.833 -0.627 2.085
-0.833 -0.631 2.098
-0.833 -0.636 2.115
-0.834 -0.640 2.130
-0.834 -0.645 2.146
-0.834 -0.650 2.161
-0.834 -0.654 2.176
-0.834 -0.659 2.192
-0.834 -0.663 2.207
-0.835 -0.669 2.226
-0.835 -0.674 2.243
-0.834 -0.679 2.258
-0.833 -0.683 2.272
-0.833 -0.688 2.288
-0.833 -0.693 2.307
-0.834 -0.699 2.325
-0.834 -0.705 2.344
-0.833 -0.709 2.360
-0.834 -0.715 2.380
-0.834 -0.721 2.400
-0.835 -0.728 2.422
-0.836 -0.734 2.443
-0.837 -0.741 2.465
-0.836 -0.747 2.484
-0.837 -0.754 2.507
-0.838 -0.761 2.531
-0.840 -0.769 2.558
-0.843 -0.778 2.589
-0.846 -0.787 2.618
-0.848 -0.796 2.648
-0.847 -0.802 2.669
-0.847 -0.809 2.692
-0.849 -0.818 2.721
-0.852 -0.828 2.756
-0.854 -0.838 2.787
-0.856 -0.847 2.818
-0.858 -0.856 2.848
-0.859 -0.865 2.879
-0.859 -0.874 2.906
-0.861 -0.884 2.940
-0.863 -0.894 2.973
-0.865 -0.904 3.008
-0.865 -0.913 3.038
-0.863 -0.920 3.061
-0.860 -0.926 3.081
-0.858 -0.933 3.103
-0.856 -0.940 3.127
-0.854 -0.947 3.150
-0.848 -0.951 3.162
-0.841 -0.952 3.167
-0.833 -0.953 3.169
-0.825 -0.954 3.172
-0.818 -0.955 3.178
-0.810 -0.957 3.182
-0.803 -0.958 3.188
-0.794 -0.958 3.188
-0.786 -0.958 3.188
-0.776 -0.958 3.186
-0.768 -0.959 3.189
-0.760 -0.959 3.189
-0.751 -0.959 3.190
-0.742 -0.959 3.190
-0.734 -0.959 3.190
-0.725 -0.959 3.190
-0.716 -0.959 3.191
-0.708 -0.960 3.193
-0.699 -0.960 3.192
-0.690 -0.959 3.190
-0.681 -0.958 3.187
-0.672 -0.957 3.185
-0.664 -0.959 3.190
-0.656 -0.960 3.194
-0.648 -0.960 3.195
-0.638 -0.959 3.190
-0.629 -0.959 3.190
-0.620 -0.959 3.189
-0.612 -0.959 3.190
-0.603 -0.959 3.190
-0.594 -0.958 3.188
-0.584 -0.957 3.184
-0.576 -0.957 3.184
-0.567 -0.958 3.187
-0.559 -0.958 3.188
-0.550 -0.958 3.186
-0.541 -0.958 3.186
-0.532 -0.957 3.184
-0.523 -0.957 3.184
-0.514 -0.957 3.182
-0.506 -0.957 3.183
-0.497 -0.957 3.183
-0.488 -0.957 3.182
-0.480 -0.957 3.182
-0.471 -0.956 3.181
-0.462 -0.957 3.183
-0.454 -0.957 3.184
-0.445 -0.958 3.187
-0.436 -0.957 3.185
-0.428 -0.957 3.185
-0.419 -0.957 3.183
-0.410 -0.957 3.184
-0.402 -0.957 3.185
-0.393 -0.959 3.189
-0.385 -0.958 3.188
-0.376 -0.958 3.186
-0.367 -0.957 3.185
-0.358 -0.958 3.187
-0.350 -0.958 3.187
-0.341 -0.957 3.184
-0.332 -0.957 3.182
-0.323 -0.956 3.180
-0.314 -0.956 3.181
-0.305 -0.956 3.180
-0.297 -0.956 3.180
-0.288 -0.957 3.184
-0.280 -0.958 3.186
-0.271 -0.958 3.187
-0.262 -0.958 3.187
-0.254 -0.958 3.186
-0.245 -0.957 3.184
-0.236 -0.956 3.181
-0.227 -0.957 3.185
-0.219 -0.958 3.187
-0.210 -0.958 3.187
-0.201 -0.957 3.185
-0.192 -0.957 3.183
-0.184 -0.957 3.183
-0.175 -0.956 3.181
-0.166 -0.957 3.183
-0.158 -0.957 3.183
-0.149 -0.958 3.186
-0.140 -0.957 3.185
-0.132 -0.958 3.188
-0.123 -0.958 3.187
-0.114 -0.958 3.187
-0.106 -0.958 3.188
-0.097 -0.959 3.190
-0.088 -0.959 3.191
-0.079 -0.958 3.186
-0.071 -0.958 3.188
-0.062 -0.960 3.192
-0.053 -0.960 3.193
-0.045 -0.960 3.194
-0.036 -0.959 3.190
-0.027 -0.959 3.189
-0.018 -0.957 3.183
-0.010 -0.957 3.182
-0.001 -0.957 3.184
0.008 -0.957 3.184
0.016 -0.957 3.183
0.025 -0.958 3.186
0.034 -0.957 3.184
0.043 -0.958 3.186
0.051 -0.957 3.183
0.060 -0.957 3.183
0.069 -0.957 3.182
0.077 -0.957 3.182
0.086 -0.958 3.186
0.095 -0.957 3.184
0.104 -0.957 3.185
0.112 -0.957 3.183
0.121 -0.957 3.185
0.130 -0.957 3.184
0.138 -0.957 3.184
0.147 -0.957 3.183
0.156 -0.957 3.184
0.164 -0.957 3.184
0.173 -0.958 3.188
0.182 -0.957 3.185
0.191 -0.958 3.186
0.199 -0.956 3.180
0.208 -0.957 3.182
0.217 -0.956 3.181
0.225 -0.957 3.183
0.234 -0.957 3.184
0.243 -0.957 3.184
0.251 -0.956 3.181
0.260 -0.956 3.181
0.269 -0.958 3.186
0.278 -0.958 3.188
0.286 -0.957 3.185
0.295 -0.956 3.181
0.303 -0.956 3.181
0.312 -0.957 3.182
0.321 -0.956 3.179
0.329 -0.954 3.175
0.338 -0.955 3.176
0.346 -0.955 3.176
0.355 -0.955 3.177
0.364 -0.955 3.177
0.373 -0.956 3.181
0.382 -0.957 3.183
0.391 -0.957 3.185
0.400 -0.958 3.186
0.408 -0.957 3.184
0.417 -0.957 3.183
0.425 -0.955 3.178
0.433 -0.955 3.176
0.442 -0.955 3.177
0.451 -0.955 3.176
0.459 -0.955 3.176
0.468 -0.954 3.174
0.476 -0.954 3.174
0.485 -0.954 3.174
0.494 -0.954 3.173
0.503 -0.954 3.175
0.511 -0.954 3.175
0.521 -0.956 3.180
0.530 -0.957 3.182
0.538 -0.956 3.180
0.547 -0.955 3.178
0.555 -0.956 3.179
0.564 -0.956 3.181
0.573 -0.956 3.179
0.581 -0.955 3.176
0.590 -0.955 3.178
0.599 -0.956 3.179
0.607 -0.955 3.178
0.615 -0.953 3.171
0.623 -0.953 3.171
0.633 -0.955 3.176
0.642 -0.955 3.178
0.651 -0.956 3.180
0.660 -0.956 3.180
0.669 -0.956 3.180
0.676 -0.954 3.174
0.684 -0.953 3.171
0.693 -0.953 3.170
0.702 -0.954 3.172
0.710 -0.954 3.172
0.719 -0.954 3.172
0.728 -0.954 3.172
0.737 -0.954 3.174
0.746 -0.954 3.175
0.755 -0.955 3.176
0.763 -0.954 3.174
0.771 -0.954 3.172
0.780 -0.954 3.172
0.788 -0.954 3.172
0.797 -0.953 3.170
0.805 -0.952 3.168
0.814 -0.954 3.172
0.825 -0.955 3.178
0.833 -0.955 3.177
0.840 -0.953 3.170
0.848 -0.952 3.167
0.857 -0.953 3.170
0.867 -0.954 3.173
0.875 -0.954 3.172
0.884 -0.954 3.174
0.892 -0.954 3.172
0.901 -0.954 3.173
0.910 -0.954 3.172
0.919 -0.954 3.175
0.928 -0.955 3.176
0.936 -0.954 3.173
0.945 -0.954 3.172
0.954 -0.954 3.173
0.962 -0.954 3.172
0.971 -0.954 3.172
0.978 -0.953 3.169
0.988 -0.953 3.171
0.995 -0.952 3.168
1.005 -0.953 3.170
1.012 -0.952 3.167
1.022 -0.953 3.171
1.031 -0.954 3.172
1.041 -0.955 3.176
1.049 -0.954 3.173
1.058 -0.954 3.175
1.067 -0.954 3.175
1.076 -0.954 3.175
1.083 -0.954 3.172
1.091 -0.953 3.169
1.100 -0.953 3.171
1.110 -0.954 3.173
1.119 -0.955 3.176
1.128 -0.954 3.175
1.135 -0.953 3.171
1.143 -0.953 3.170
1.152 -0.953 3.171
1.161 -0.954 3.172
1.169 -0.953 3.170
1.178 -0.953 3.171
1.187 -0.954 3.172
1.197 -0.954 3.175
1.204 -0.953 3.170
1.212 -0.953 3.169
1.221 -0.952 3.168
1.231 -0.954 3.173
1.239 -0.953 3.171
1.247 -0.952 3.168
1.254 -0.951 3.165
1.264 -0.952 3.168
1.274 -0.953 3.171
1.282 -0.953 3.171
1.290 -0.952 3.168
1.298 -0.952 3.167
1.307 -0.952 3.168
1.317 -0.953 3.170
1.325 -0.953 3.169
1.332 -0.952 3.166
1.340 -0.951 3.163
1.347 -0.950 3.160
1.355 -0.949 3.158
1.364 -0.949 3.158
1.373 -0.950 3.159
1.382 -0.950 3.161
1.393 -0.952 3.166
1.404 -0.953 3.171
1.412 -0.953 3.170
1.419 -0.952 3.167
1.426 -0.951 3.162
1.434 -0.950 3.161
1.445 -0.952 3.166
1.455 -0.953 3.170
1.464 -0.953 3.170
1.471 -0.952 3.167
1.478 -0.951 3.162
1.486 -0.951 3.162
1.495 -0.951 3.162
1.505 -0.952 3.166
1.511 -0.950 3.160
1.522 -0.951 3.164
1.530 -0.951 3.164
1.541 -0.952 3.167
1.544 -0.949 3.157
1.553 -0.949 3.157
1.565 -0.951 3.163
1.577 -0.953 3.171
1.583 -0.951 3.165
1.590 -0.951 3.162
1.599 -0.951 3.163
1.609 -0.951 3.165
1.617 -0.951 3.164
1.625 -0.951 3.163
1.634 -0.951 3.163
1.640 -0.950 3.159
1.650 -0.950 3.161
1.662 -0.952 3.167
1.672 -0.953 3.170
1.680 -0.952 3.168
1.687 -0.951 3.165
1.696 -0.952 3.166
1.705 -0.952 3.167
1.713 -0.951 3.165
1.721 -0.951 3.165
1.730 -0.951 3.164
1.738 -0.951 3.164
1.745 -0.950 3.161
1.755 -0.951 3.164
1.762 -0.950 3.160
1.769 -0.949 3.158
1.777 -0.949 3.156
1.784 -0.948 3.153
1.796 -0.950 3.160
1.810 -0.952 3.168
1.819 -0.953 3.170
1.825 -0.951 3.164
1.833 -0.951 3.164
1.838 -0.949 3.158
1.847 -0.949 3.157
1.856 -0.950 3.159
1.864 -0.949 3.158
1.877 -0.951 3.164
1.883 -0.950 3.161
1.888 -0.948 3.154
1.897 -0.948 3.155
1.912 -0.952 3.166
1.922 -0.952 3.168
1.932 -0.953 3.169
1.937 -0.951 3.164
1.942 -0.949 3.158
1.950 -0.949 3.157
1.964 -0.951 3.165
1.970 -0.950 3.161
1.977 -0.950 3.159
1.995 -0.954 3.173
2.000 -0.952 3.168
2.010 -0.953 3.169
2.025 -0.956 3.179
2.034 -0.956 3.180
2.026 -0.948 3.154
2.029 -0.946 3.146
2.078 -0.964 3.208
2.070 -0.957 3.182
2.076 -0.955 3.178
2.071 -0.949 3.157
2.086 -0.952 3.166
2.095 -0.952 3.167
2.090 -0.946 3.146
0.000 -0.000 0.000
0.000 -0.000 0.000
2.113 -0.945 3.143
2.131 -0.949 3.156
0.000 -0.000 0.000
0.000 -0.000 0.000
2.168 -0.954 3.173
2.172 -0.952 3.166
2.175 -0.949 3.157
0.000 -0.000 0.000
-0.000 -0.000 0.000
-0.823 -0.349 1.170
-0.822 -0.349 1.173
-0.814 -0.348 1.167
-0.808 -0.346 1.163
-0.807 -0.347 1.166
-0.809 -0.349 1.173
-0.805 -0.349 1.172
-0.812 -0.354 1.187
-0.816 -0.357 1.198
-0.819 -0.360 1.207
-0.812 -0.358 1.201
-0.810 -0.359 1.204
-0.810 -0.360 1.209
-0.814 -0.363 1.219
-0.813 -0.364 1.223
-0.813 -0.366 1.228
-0.813 -0.367 1.233
-0.815 -0.370 1.241
-0.813 -0.370 1.243
-0.813 -0.372 1.248
-0.815 -0.374 1.257
-0.817 -0.377 1.265
-0.819 -0.379 1.274
-0.816 -0.379 1.274
-0.817 -0.382 1.282
-0.816 -0.383 1.286
-0.815 -0.384 1.289
-0.812 -0.385 1.291
-0.814 -0.387 1.299
-0.817 -0.390 1.309
-0.818 -0.392 1.317
-0.819 -0.394 1.324
-0.818 -0.396 1.329
-0.819 -0.398 1.336
-0.819 -0.400 1.343
-0.822 -0.403 1.353
-0.821 -0.404 1.357
-0.821 -0.406 1.364
-0.820 -0.407 1.368
-0.821 -0.410 1.376
-0.821 -0.412 1.382
-0.820 -0.413 1.388
-0.821 -0.416 1.395
-0.820 -0.417 1.401
-0.820 -0.419 1.407
-0.820 -0.421 1.413
-0.821 -0.424 1.422
-0.821 -0.426 1.429
-0.823 -0.429 1.439
-0.823 -0.431 1.447
-0.826 -0.434 1.458
-0.825 -0.436 1.464
-0.825 -0.438 1.471
-0.824 -0.440 1.476
-0.823 -0.441 1.482
-0.824 -0.444 1.491
-0.824 -0.446 1.498
-0.824 -0.448 1.505
-0.824 -0.451 1.513
-0.825 -0.454 1.523
-0.826 -0.457 1.533
-0.826 -0.459 1.540
-0.826 -0.461 1.549
-0.828 -0.465 1.560
-0.830 -0.468 1.571
-0.830 -0.470 1.579
-0.828 -0.472 1.585
-0.829 -0.475 1.595
-0.829 -0.477 1.603
-0.830 -0.480 1.613
-0.830 -0.483 1.622
-0.831 -0.486 1.632
-0.831 -0.489 1.641
-0.832 -0.492 1.653
-0.833 -0.496 1.664
-0.832 -0.498 1.671
-0.832 -0.500 1.680
-0.830 -0.502 1.686
-0.831 -0.505 1.696
-0.830 -0.508 1.705
-0.833 -0.512 1.719
-0.833 -0.515 1.730
-0.834 -0.519 1.741
-0.833 -0.521 1.750
-0.833 -0.524 1.759
-0.833 -0.527 1.770
-0.833 -0.530 1.780
-0.834 -0.534 1.792
-0.834 -0.537 1.803
-0.833 -0.540 1.812
-0.833 -0.543 1.823
-0.833 -0.546 1.834
-0.834 -0.550 1.847
-0.833 -0.553 1.857
-0.834 -0.557 1.870
-0.834 -0.560 1.881
-0.834 -0.564 1.893
-0.833 -0.567 1.902
-0.834 -0.571 1.916
-0.834 -0.575 1.929
-0.834 -0.578 1.942
-0.835 -0.582 1.955
-0.834 -0.586 1.967
-0.835 -0.590 1.981
-0.835 -0.594 1.995
-0.836 -0.599 2.011
-0.836 -0.602 2.022
-0.834 -0.605 2.032
-0.833 -0.608 2.042
-0.832 -0.612 2.055
-0.832 -0.616 2.069
-0.833 -0.621 2.085
-0.833 -0.625 2.099
-0.834 -0.631 2.117
-0.834 -0.635 2.131
-0.834 -0.639 2.145
-0.833 -0.643 2.160
-0.833 -0.648 2.175
-0.832 -0.652 2.188
-0.832 -0.656 2.202
-0.832 -0.661 2.218
-0.834 -0.667 2.240
-0.834 -0.672 2.256
-0.832 -0.676 2.270
-0.831 -0.680 2.283
-0.831 -0.685 2.301
-0.833 -0.692 2.322
-0.833 -0.697 2.341
-0.833 -0.703 2.360
-0.834 -0.709 2.380
-0.835 -0.715 2.402
-0.836 -0.722 2.425
-0.836 -0.728 2.445
-0.836 -0.734 2.464
-0.835 -0.739 2.480
-0.835 -0.745 2.502
-0.837 -0.753 2.528
-0.840 -0.762 2.557
-0.841 -0.769 2.583
-0.846 -0.780 2.618
-0.847 -0.788 2.646
-0.847 -0.795 2.669
-0.846 -0.800 2.687
-0.848 -0.810 2.719
-0.851 -0.820 2.752
-0.853 -0.829 2.783
-0.855 -0.838 2.815
-0.857 -0.848 2.846
-0.858 -0.856 2.874
-0.858 -0.865 2.903
-0.862 -0.876 2.942
-0.863 -0.886 2.975
-0.867 -0.898 3.015
-0.867 -0.907 3.046
-0.866 -0.915 3.071
-0.863 -0.920 3.090
-0.859 -0.925 3.106
-0.856 -0.931 3.126
-0.853 -0.938 3.148
-0.849 -0.942 3.163
-0.842 -0.945 3.171
-0.834 -0.945 3.174
-0.826 -0.946 3.177
-0.819 -0.948 3.182
-0.811 -0.949 3.186
-0.803 -0.950 3.189
-0.795 -0.951 3.192
-0.786 -0.950 3.191
-0.778 -0.951 3.192
-0.769 -0.951 3.193
-0.761 -0.952 3.195
-0.753 -0.952 3.196
-0.744 -0.952 3.196
-0.735 -0.952 3.196
-0.726 -0.952 3.196
-0.718 -0.952 3.197
-0.709 -0.952 3.195
-0.699 -0.951 3.193
-0.691 -0.951 3.193
-0.682 -0.951 3.194
-0.673 -0.951 3.192
-0.665 -0.951 3.193
-0.656 -0.952 3.195
-0.647 -0.951 3.194
-0.638 -0.950 3.191
-0.630 -0.951 3.193
-0.621 -0.951 3.194
-0.613 -0.952 3.196
-0.604 -0.952 3.195
-0.595 -0.952 3.195
-0.586 -0.951 3.194
-0.577 -0.951 3.194
-0.569 -0.952 3.195
-0.560 -0.952 3.195
-0.551 -0.951 3.193
-0.542 -0.950 3.190
-0.533 -0.950 3.188
-0.524 -0.950 3.188
-0.515 -0.950 3.189
-0.507 -0.950 3.189
-0.498 -0.950 3.189
-0.489 -0.950 3.189
-0.481 -0.950 3.190
-0.472 -0.950 3.189
-0.464 -0.951 3.193
-0.455 -0.951 3.193
-0.446 -0.951 3.192
-0.437 -0.950 3.189
-0.429 -0.950 3.191
-0.420 -0.951 3.192
-0.411 -0.951 3.193
-0.403 -0.951 3.193
-0.394 -0.951 3.194
-0.385 -0.951 3.192
-0.376 -0.950 3.191
-0.368 -0.951 3.192
-0.359 -0.951 3.193
-0.350 -0.951 3.194
-0.341 -0.950 3.191
-0.332 -0.950 3.190
-0.323 -0.949 3.187
-0.315 -0.950 3.191
-0.306 -0.950 3.191
-0.298 -0.951 3.192
-0.289 -0.950 3.189
-0.280 -0.950 3.188
-0.271 -0.950 3.191
-0.263 -0.950 3.191
-0.254 -0.951 3.192
-0.245 -0.950 3.189
-0.237 -0.951 3.192
-0.228 -0.951 3.194
-0.219 -0.951 3.193
-0.210 -0.950 3.191
-0.202 -0.951 3.192
-0.193 -0.950 3.190
-0.184 -0.950 3.190
-0.175 -0.950 3.188
-0.167 -0.951 3.193
-0.158 -0.951 3.192
-0.149 -0.951 3.193
-0.141 -0.950 3.190
-0.132 -0.951 3.194
-0.123 -0.951 3.192
-0.114 -0.951 3.192
-0.106 -0.951 3.193
-0.097 -0.953 3.198
-0.088 -0.953 3.199
-0.080 -0.952 3.195
-0.071 -0.951 3.192
-0.062 -0.952 3.196
-0.053 -0.952 3.197
-0.045 -0.953 3.199
-0.036 -0.951 3.193
-0.027 -0.950 3.190
-0.018 -0.949 3.187
-0.010 -0.950 3.191
-0.001 -0.951 3.194
0.008 -0.951 3.194
0.016 -0.950 3.190
0.025 -0.950 3.190
0.034 -0.950 3.189
0.043 -0.950 3.190
0.051 -0.950 3.191
0.060 -0.951 3.192
0.069 -0.950 3.191
0.078 -0.950 3.189
0.086 -0.950 3.190
0.095 -0.950 3.189
0.104 -0.950 3.190
0.112 -0.950 3.191
0.121 -0.950 3.189
0.130 -0.950 3.190
0.139 -0.950 3.189
0.147 -0.951 3.192
0.156 -0.950 3.190
0.165 -0.950 3.190
0.174 -0.950 3.190
0.182 -0.950 3.190
0.191 -0.950 3.190
0.200 -0.950 3.188
0.208 -0.950 3.188
0.217 -0.949 3.186
0.226 -0.949 3.187
0.234 -0.950 3.188
0.243 -0.949 3.186
0.252 -0.949 3.185
0.260 -0.949 3.185
0.270 -0.951 3.192
0.278 -0.950 3.191
0.287 -0.951 3.192
0.295 -0.950 3.188
0.304 -0.949 3.187
0.313 -0.949 3.186
0.321 -0.948 3.184
0.330 -0.948 3.183
0.338 -0.948 3.181
0.347 -0.948 3.184
0.356 -0.949 3.185
0.365 -0.949 3.186
0.374 -0.950 3.189
0.383 -0.950 3.190
0.392 -0.950 3.191
0.401 -0.951 3.192
0.409 -0.951 3.193
0.418 -0.951 3.192
0.426 -0.950 3.189
0.434 -0.948 3.184
0.443 -0.948 3.183
0.451 -0.947 3.180
0.460 -0.948 3.181
0.468 -0.947 3.178
0.477 -0.948 3.181
0.486 -0.948 3.181
0.495 -0.948 3.182
0.503 -0.947 3.179
0.512 -0.948 3.182
0.521 -0.948 3.184
0.531 -0.950 3.188
0.538 -0.948 3.181
0.547 -0.948 3.183
0.556 -0.948 3.184
0.566 -0.950 3.188
0.574 -0.948 3.184
0.582 -0.948 3.184
0.591 -0.949 3.185
0.600 -0.949 3.185
0.608 -0.948 3.181
0.616 -0.947 3.178
0.625 -0.947 3.179
0.635 -0.948 3.184
0.643 -0.948 3.183
0.652 -0.948 3.184
0.661 -0.948 3.183
0.669 -0.948 3.183
0.677 -0.947 3.179
0.685 -0.946 3.176
0.693 -0.945 3.174
0.703 -0.946 3.176
0.711 -0.946 3.177
0.720 -0.947 3.178
0.729 -0.946 3.177
0.738 -0.948 3.181
0.747 -0.947 3.180
0.757 -0.949 3.186
0.764 -0.947 3.180
0.773 -0.947 3.180
0.781 -0.946 3.176
0.790 -0.947 3.178
0.798 -0.946 3.175
0.807 -0.946 3.175
0.815 -0.946 3.175
0.825 -0.947 3.180
0.834 -0.947 3.179
0.842 -0.946 3.177
0.850 -0.946 3.176
0.860 -0.947 3.179
0.869 -0.948 3.181
0.877 -0.947 3.180
0.887 -0.948 3.182
0.895 -0.947 3.180
0.903 -0.947 3.180
0.911 -0.946 3.176
0.921 -0.947 3.179
0.929 -0.947 3.179
0.936 -0.945 3.174
0.945 -0.945 3.174
0.955 -0.946 3.177
0.964 -0.947 3.179
0.973 -0.947 3.179
0.981 -0.946 3.177
0.989 -0.946 3.177
0.997 -0.945 3.174
1.006 -0.945 3.173
1.015 -0.945 3.174
1.024 -0.946 3.177
1.033 -0.947 3.178
1.042 -0.947 3.179
1.050 -0.946 3.176
1.059 -0.946 3.177
1.068 -0.947 3.178
1.076 -0.946 3.177
1.085 -0.946 3.176
1.093 -0.945 3.174
1.102 -0.946 3.177
1.112 -0.947 3.179
1.122 -0.948 3.183
1.130 -0.948 3.181
1.137 -0.946 3.177
1.144 -0.945 3.173
1.154 -0.946 3.176
1.163 -0.946 3.177
1.172 -0.946 3.176
1.181 -0.946 3.177
1.190 -0.947 3.179
1.199 -0.947 3.179
1.206 -0.946 3.176
1.214 -0.945 3.174
1.223 -0.945 3.174
1.232 -0.946 3.175
1.241 -0.946 3.175
1.249 -0.945 3.174
1.258 -0.945 3.174
1.266 -0.945 3.173
1.275 -0.945 3.174
1.283 -0.945 3.173
1.292 -0.945 3.174
1.300 -0.945 3.172
1.310 -0.945 3.174
1.318 -0.945 3.173
1.327 -0.945 3.173
1.334 -0.944 3.170
1.343 -0.945 3.171
1.350 -0.943 3.167
1.358 -0.943 3.165
1.367 -0.943 3.165
1.376 -0.943 3.167
1.386 -0.944 3.170
1.395 -0.944 3.170
1.405 -0.945 3.173
1.412 -0.944 3.169
1.421 -0.944 3.170
1.429 -0.944 3.169
1.437 -0.944 3.168
1.448 -0.945 3.173
1.458 -0.946 3.175
1.466 -0.946 3.175
1.474 -0.945 3.172
1.481 -0.944 3.169
1.491 -0.945 3.171
1.499 -0.945 3.171
1.508 -0.945 3.172
1.515 -0.943 3.167
1.523 -0.943 3.167
1.533 -0.944 3.169
1.541 -0.944 3.168
1.548 -0.942 3.164
1.558 -0.943 3.167
1.569 -0.945 3.172
1.581 -0.947 3.178
1.588 -0.946 3.175
1.596 -0.945 3.174
1.604 -0.945 3.172
1.612 -0.945 3.172
1.621 -0.945 3.172
1.631 -0.946 3.175
1.637 -0.944 3.170
1.646 -0.944 3.169
1.655 -0.944 3.170
1.666 -0.946 3.175
1.675 -0.946 3.176
1.683 -0.945 3.174
1.687 -0.943 3.166
1.694 -0.942 3.163
1.705 -0.943 3.167
1.718 -0.946 3.175
1.728 -0.946 3.177
1.734 -0.945 3.172
1.741 -0.944 3.169
1.751 -0.945 3.172
1.755 -0.942 3.164
1.765 -0.943 3.166
1.774 -0.943 3.167
1.782 -0.943 3.165
1.790 -0.942 3.163
1.799 -0.943 3.165
1.810 -0.944 3.168
1.818 -0.944 3.168
1.829 -0.945 3.171
1.840 -0.946 3.175
1.848 -0.945 3.174
1.851 -0.943 3.165
1.860 -0.943 3.165
1.874 -0.945 3.174
1.889 -0.949 3.185
1.889 -0.944 3.170
1.894 -0.943 3.165
1.902 -0.942 3.163
1.916 -0.945 3.172
1.923 -0.944 3.169
1.925 -0.941 3.158
1.929 -0.939 3.151
1.921 -0.931 3.124
1.946 -0.938 3.150
1.953 -0.938 3.148
1.971 -0.942 3.162
1.981 -0.943 3.165
1.994 -0.945 3.172
1.991 -0.939 3.154
2.005 -0.942 3.162
2.021 -0.945 3.173
2.032 -0.946 3.177
2.027 -0.940 3.155
2.044 -0.944 3.169
2.063 -0.949 3.185
2.078 -0.952 3.195
2.043 -0.932 3.128
2.062 -0.936 3.144
2.072 -0.937 3.145
2.092 -0.942 3.163
2.095 -0.939 3.154
0.000 -0.000 0.000
0.000 -0.000 0.000
2.111 -0.935 3.140
2.118 -0.934 3.137
2.157 -0.948 3.182
0.000 -0.000 0.000
2.174 -0.948 3.181
2.167 -0.941 3.159
0.000 -0.000 0.000
0.000 -0.000 0.000
-0.000 -0.000 0.000
-0.821 -0.345 1.168
-0.818 -0.345 1.168
-0.807 -0.341 1.157
-0.810 -0.344 1.166
-0.812 -0.346 1.173
-0.813 -0.348 1.179
-0.806 -0.346 1.174
-0.810 -0.349 1.184
-0.813 -0.352 1.194
-0.818 -0.356 1.206
-0.814 -0.356 1.205
-0.813 -0.357 1.208
-0.812 -0.357 1.211
-0.813 -0.359 1.218
-0.812 -0.360 1.221
-0.811 -0.362 1.225
-0.812 -0.364 1.232
-0.813 -0.365 1.238
-0.813 -0.367 1.244
-0.814 -0.369 1.250
-0.817 -0.372 1.260
-0.817 -0.373 1.265
-0.817 -0.375 1.271
-0.816 -0.376 1.275
-0.819 -0.379 1.284
-0.819 -0.381 1.290
-0.817 -0.381 1.292
-0.815 -0.382 1.295
-0.814 -0.384 1.300
-0.818 -0.387 1.312
-0.820 -0.390 1.321
-0.823 -0.393 1.331
-0.822 -0.394 1.335
-0.822 -0.396 1.341
-0.823 -0.398 1.349
-0.824 -0.400 1.356
-0.822 -0.401 1.360
-0.820 -0.402 1.363
-0.820 -0.404 1.369
-0.821 -0.406 1.376
-0.822 -0.409 1.385
-0.823 -0.411 1.393
-0.824 -0.413 1.400
-0.824 -0.415 1.407
-0.823 -0.417 1.413
-0.822 -0.418 1.418
-0.823 -0.421 1.425
-0.822 -0.422 1.430
-0.822 -0.424 1.438
-0.823 -0.427 1.446
-0.825 -0.430 1.457
-0.825 -0.432 1.463
-0.826 -0.434 1.472
-0.824 -0.436 1.477
-0.823 -0.437 1.482
-0.824 -0.440 1.491
-0.824 -0.442 1.499
-0.825 -0.445 1.507
-0.824 -0.447 1.513
-0.826 -0.450 1.524
-0.826 -0.452 1.532
-0.826 -0.455 1.540
-0.826 -0.457 1.549
-0.829 -0.461 1.562
-0.830 -0.464 1.572
-0.830 -0.466 1.580
-0.829 -0.468 1.586
-0.830 -0.471 1.596
-0.829 -0.473 1.604
-0.832 -0.477 1.617
-0.831 -0.480 1.625
-0.832 -0.483 1.635
-0.832 -0.485 1.643
-0.832 -0.488 1.653
-0.834 -0.491 1.665
-0.834 -0.494 1.674
-0.834 -0.497 1.683
-0.832 -0.498 1.689
-0.831 -0.501 1.697
-0.831 -0.504 1.707
-0.834 -0.508 1.722
-0.834 -0.511 1.732
-0.833 -0.514 1.740
-0.833 -0.516 1.749
-0.833 -0.519 1.760
-0.834 -0.523 1.773
-0.833 -0.526 1.781
-0.833 -0.529 1.791
-0.833 -0.532 1.802
-0.833 -0.534 1.811
-0.833 -0.538 1.823
-0.834 -0.542 1.836
-0.835 -0.546 1.850
-0.834 -0.549 1.859
-0.835 -0.552 1.871
-0.834 -0.555 1.881
-0.834 -0.558 1.892
-0.833 -0.562 1.903
-0.834 -0.566 1.917
-0.835 -0.570 1.932
-0.834 -0.573 1.941
-0.835 -0.577 1.955
-0.835 -0.581 1.968
-0.837 -0.586 1.985
-0.837 -0.590 1.998
-0.837 -0.594 2.012
-0.836 -0.597 2.023
-0.835 -0.600 2.033
-0.833 -0.603 2.043
-0.834 -0.607 2.058
-0.834 -0.612 2.072
-0.834 -0.616 2.087
-0.833 -0.619 2.099
-0.833 -0.624 2.114
-0.833 -0.628 2.129
-0.834 -0.633 2.145
-0.835 -0.638 2.163
-0.834 -0.643 2.178
-0.833 -0.646 2.190
-0.831 -0.650 2.201
-0.832 -0.655 2.218
-0.833 -0.661 2.238
-0.834 -0.666 2.256
-0.833 -0.670 2.271
-0.832 -0.675 2.287
-0.832 -0.680 2.303
-0.833 -0.685 2.322
-0.833 -0.691 2.341
-0.834 -0.697 2.362
-0.834 -0.703 2.382
-0.836 -0.710 2.406
-0.837 -0.716 2.427
-0.836 -0.721 2.443
-0.835 -0.726 2.461
-0.835 -0.732 2.481
-0.837 -0.740 2.506
-0.839 -0.747 2.532
-0.841 -0.755 2.559
-0.841 -0.762 2.583
-0.845 -0.772 2.617
-0.847 -0.781 2.645
-0.847 -0.787 2.668
-0.848 -0.795 2.695
-0.849 -0.803 2.722
-0.851 -0.812 2.751
-0.851 -0.820 2.777
-0.854 -0.830 2.812
-0.857 -0.840 2.845
-0.859 -0.849 2.878
-0.859 -0.858 2.907
-0.861 -0.868 2.941
-0.863 -0.878 2.975
-0.865 -0.888 3.009
-0.867 -0.899 3.045
-0.866 -0.906 3.071
-0.863 -0.912 3.090
-0.858 -0.916 3.104
-0.856 -0.922 3.125
-0.853 -0.929 3.147
-0.849 -0.934 3.165
-0.844 -0.938 3.177
-0.836 -0.939 3.182
-0.829 -0.940 3.186
-0.821 -0.941 3.190
-0.813 -0.942 3.192
-0.805 -0.943 3.195
-0.797 -0.944 3.197
-0.788 -0.944 3.199
-0.780 -0.945 3.201
-0.772 -0.945 3.202
-0.763 -0.946 3.205
-0.754 -0.945 3.203
-0.745 -0.945 3.202
-0.736 -0.944 3.199
-0.727 -0.945 3.201
-0.719 -0.945 3.202
-0.710 -0.945 3.201
-0.701 -0.944 3.200
-0.692 -0.945 3.201
-0.684 -0.946 3.204
-0.675 -0.945 3.203
-0.666 -0.945 3.202
-0.657 -0.945 3.201
-0.649 -0.945 3.201
-0.640 -0.944 3.200
-0.632 -0.945 3.203
-0.623 -0.945 3.203
-0.614 -0.946 3.204
-0.605 -0.945 3.203
-0.597 -0.946 3.204
-0.588 -0.945 3.202
-0.579 -0.945 3.203
-0.570 -0.945 3.202
-0.562 -0.945 3.203
-0.552 -0.945 3.201
-0.543 -0.944 3.197
-0.534 -0.943 3.194
-0.525 -0.943 3.195
-0.517 -0.944 3.197
-0.508 -0.944 3.197
-0.499 -0.943 3.196
-0.491 -0.944 3.198
-0.482 -0.944 3.199
-0.473 -0.944 3.199
-0.465 -0.944 3.199
-0.456 -0.944 3.200
-0.447 -0.944 3.198
-0.438 -0.944 3.197
-0.430 -0.944 3.199
-0.421 -0.945 3.202
-0.413 -0.945 3.202
-0.404 -0.945 3.202
-0.395 -0.945 3.203
-0.386 -0.945 3.202
-0.377 -0.944 3.199
-0.368 -0.944 3.199
-0.360 -0.944 3.199
-0.351 -0.945 3.201
-0.342 -0.944 3.199
-0.333 -0.944 3.200
-0.324 -0.943 3.196
-0.316 -0.944 3.199
-0.307 -0.944 3.198
-0.298 -0.944 3.199
-0.289 -0.943 3.195
-0.281 -0.943 3.196
-0.272 -0.944 3.200
-0.263 -0.944 3.199
-0.255 -0.944 3.198
-0.246 -0.943 3.195
-0.237 -0.944 3.198
-0.228 -0.944 3.200
-0.220 -0.944 3.200
-0.211 -0.944 3.199
-0.202 -0.944 3.199
-0.193 -0.944 3.197
-0.184 -0.943 3.196
-0.176 -0.944 3.197
-0.167 -0.945 3.203
-0.159 -0.945 3.203
-0.150 -0.944 3.200
-0.141 -0.944 3.199
-0.132 -0.944 3.200
-0.123 -0.944 3.200
-0.115 -0.944 3.197
-0.106 -0.945 3.201
-0.097 -0.946 3.204
-0.089 -0.946 3.206
-0.080 -0.944 3.199
-0.071 -0.943 3.196
-0.062 -0.944 3.200
-0.053 -0.944 3.200
-0.045 -0.944 3.200
-0.036 -0.942 3.193
-0.027 -0.943 3.194
-0.018 -0.943 3.196
-0.010 -0.944 3.199
-0.001 -0.944 3.198
0.008 -0.944 3.197
0.017 -0.944 3.198
0.025 -0.943 3.195
0.034 -0.943 3.195
0.043 -0.943 3.195
0.052 -0.945 3.201
0.060 -0.945 3.201
0.069 -0.944 3.199
0.078 -0.943 3.194
0.086 -0.943 3.195
0.095 -0.943 3.196
0.104 -0.944 3.199
0.113 -0.944 3.198
0.121 -0.944 3.197
0.130 -0.943 3.194
0.139 -0.943 3.195
0.148 -0.944 3.197
0.156 -0.943 3.194
0.165 -0.943 3.195
0.174 -0.944 3.197
0.183 -0.944 3.200
0.191 -0.944 3.197
0.200 -0.943 3.195
0.209 -0.943 3.194
0.217 -0.943 3.194
0.226 -0.942 3.193
0.235 -0.943 3.194
0.243 -0.942 3.192
0.252 -0.941 3.189
0.261 -0.943 3.194
0.270 -0.944 3.198
0.279 -0.944 3.199
0.287 -0.943 3.195
0.296 -0.943 3.194
0.305 -0.943 3.195
0.314 -0.943 3.195
0.322 -0.942 3.192
0.331 -0.941 3.190
0.339 -0.942 3.192
0.348 -0.943 3.194
0.357 -0.941 3.190
0.365 -0.941 3.190
0.374 -0.942 3.192
0.384 -0.943 3.196
0.392 -0.943 3.194
0.401 -0.944 3.197
0.410 -0.944 3.198
0.419 -0.944 3.197
0.427 -0.943 3.195
0.436 -0.942 3.193
0.444 -0.942 3.191
0.453 -0.941 3.189
0.462 -0.942 3.191
0.470 -0.942 3.191
0.479 -0.942 3.191
0.487 -0.941 3.189
0.496 -0.941 3.188
0.504 -0.940 3.185
0.514 -0.941 3.189
0.523 -0.942 3.192
0.532 -0.942 3.193
0.540 -0.941 3.189
0.548 -0.941 3.189
0.558 -0.942 3.191
0.566 -0.942 3.191
0.575 -0.941 3.189
0.584 -0.941 3.190
0.592 -0.942 3.191
0.601 -0.942 3.191
0.609 -0.941 3.188
0.618 -0.941 3.188
0.627 -0.941 3.188
0.636 -0.942 3.192
0.645 -0.941 3.190
0.654 -0.942 3.192
0.662 -0.941 3.190
0.671 -0.941 3.190
0.678 -0.940 3.184
0.686 -0.939 3.180
0.694 -0.938 3.178
0.704 -0.939 3.181
0.713 -0.939 3.183
0.722 -0.940 3.185
0.730 -0.940 3.184
0.740 -0.941 3.187
0.748 -0.940 3.186
0.758 -0.942 3.191
0.766 -0.941 3.188
0.774 -0.940 3.185
0.782 -0.939 3.182
0.791 -0.940 3.184
0.800 -0.940 3.184
0.808 -0.939 3.181
0.816 -0.938 3.179
0.825 -0.938 3.179
0.834 -0.939 3.182
0.844 -0.940 3.186
0.854 -0.941 3.189
0.863 -0.942 3.193
0.872 -0.942 3.191
0.879 -0.941 3.187
0.887 -0.940 3.184
0.896 -0.939 3.183
0.905 -0.940 3.185
0.914 -0.940 3.185
0.923 -0.941 3.187
0.932 -0.941 3.187
0.939 -0.939 3.183
0.948 -0.939 3.182
0.957 -0.940 3.186
0.967 -0.941 3.188
0.975 -0.941 3.188
0.983 -0.940 3.184
0.992 -0.940 3.185
1.000 -0.939 3.182
1.009 -0.939 3.183
1.017 -0.939 3.182
1.026 -0.940 3.184
1.035 -0.940 3.184
1.045 -0.941 3.187
1.052 -0.939 3.183
1.061 -0.939 3.182
1.069 -0.939 3.182
1.078 -0.939 3.183
1.087 -0.939 3.183
1.095 -0.939 3.181
1.105 -0.940 3.184
1.115 -0.941 3.189
1.125 -0.942 3.191
1.133 -0.941 3.189
1.140 -0.940 3.185
1.149 -0.940 3.185
1.158 -0.940 3.186
1.167 -0.940 3.186
1.176 -0.941 3.187
1.184 -0.941 3.187
1.193 -0.941 3.187
1.201 -0.940 3.184
1.208 -0.939 3.181
1.217 -0.939 3.181
1.226 -0.939 3.182
1.234 -0.939 3.180
1.244 -0.939 3.183
1.253 -0.940 3.184
1.262 -0.940 3.185
1.268 -0.938 3.178
1.277 -0.938 3.179
1.287 -0.939 3.182
1.296 -0.940 3.184
1.305 -0.940 3.184
1.313 -0.939 3.182
1.321 -0.939 3.181
1.329 -0.938 3.179
1.338 -0.939 3.180
1.349 -0.940 3.184
1.357 -0.939 3.183
1.364 -0.938 3.179
1.372 -0.938 3.178
1.381 -0.938 3.178
1.390 -0.939 3.180
1.398 -0.938 3.177
1.408 -0.939 3.180
1.415 -0.938 3.177
1.425 -0.939 3.180
1.435 -0.939 3.182
1.444 -0.940 3.184
1.452 -0.939 3.182
1.461 -0.939 3.183
1.469 -0.939 3.180
1.479 -0.940 3.184
1.487 -0.939 3.183
1.498 -0.941 3.187
1.505 -0.939 3.183
1.514 -0.940 3.184
1.518 -0.937 3.175
1.526 -0.936 3.173
1.535 -0.937 3.174
1.546 -0.938 3.178
1.553 -0.937 3.174
1.563 -0.938 3.177
1.571 -0.937 3.176
1.582 -0.939 3.180
1.587 -0.936 3.173
1.597 -0.937 3.175
1.605 -0.937 3.174
1.615 -0.938 3.178
1.623 -0.937 3.176
1.631 -0.937 3.174
1.638 -0.936 3.172
1.649 -0.937 3.176
1.659 -0.938 3.178
1.669 -0.939 3.181
1.678 -0.939 3.181
1.684 -0.938 3.177
1.689 -0.936 3.170
1.697 -0.935 3.168
1.709 -0.937 3.174
1.722 -0.939 3.183
1.734 -0.941 3.188
1.739 -0.939 3.182
1.748 -0.939 3.182
1.753 -0.937 3.176
1.763 -0.938 3.177
1.770 -0.937 3.174
1.779 -0.937 3.176
1.786 -0.936 3.173
1.795 -0.936 3.172
1.801 -0.935 3.168
1.811 -0.936 3.171
1.825 -0.938 3.179
1.836 -0.940 3.184
1.846 -0.940 3.186
1.848 -0.937 3.175
1.852 -0.934 3.166
1.865 -0.936 3.173
1.880 -0.940 3.185
1.888 -0.940 3.184
1.895 -0.939 3.180
1.903 -0.938 3.179
1.915 -0.940 3.185
1.915 -0.936 3.170
1.933 -0.940 3.186
1.938 -0.938 3.179
1.946 -0.938 3.178
1.944 -0.933 3.161
1.948 -0.931 3.154
1.958 -0.931 3.155
1.974 -0.935 3.168
1.997 -0.941 3.190
1.991 -0.935 3.167
1.995 -0.932 3.159
2.006 -0.934 3.163
2.017 -0.935 3.167
2.022 -0.933 3.162
2.032 -0.934 3.163
2.044 -0.935 3.168
2.055 -0.936 3.172
2.072 -0.940 3.185
0.000 -0.000 0.000
0.000 -0.000 0.000
2.086 -0.934 3.166
2.086 -0.931 3.153
2.106 -0.936 3.171
2.100 -0.929 3.148
2.107 -0.928 3.146
2.113 -0.928 3.143
2.144 -0.937 3.175
2.160 -0.941 3.187
2.161 -0.937 3.175
2.143 -0.926 3.136
0.000 -0.000 0.000
0.000 -0.000 0.000
0.000 -0.000 0.000
-0.000 -0.000 0.000
-0.818 -0.340 1.164
-0.814 -0.340 1.162
-0.812 -0.340 1.164
-0.809 -0.340 1.164
-0.811 -0.342 1.171
-0.809 -0.343 1.174
-0.808 -0.344 1.177
-0.810 -0.346 1.185
-0.813 -0.349 1.193
-0.816 -0.351 1.202
-0.814 -0.352 1.204
-0.811 -0.352 1.205
-0.811 -0.354 1.210
-0.810 -0.355 1.214
-0.810 -0.356 1.218
-0.810 -0.358 1.223
-0.810 -0.359 1.228
-0.811 -0.361 1.235
-0.810 -0.362 1.239
-0.815 -0.366 1.251
-0.816 -0.368 1.259
-0.816 -0.370 1.264
-0.815 -0.371 1.268
-0.816 -0.373 1.274
-0.817 -0.375 1.281
-0.818 -0.377 1.289
-0.816 -0.377 1.291
-0.816 -0.379 1.297
-0.816 -0.381 1.303
-0.820 -0.385 1.315
-0.822 -0.387 1.323
-0.822 -0.389 1.330
